ncols        157
nrows        32
xllcorner    1490798.53441
yllcorner    2110076.86472
cellsize     32.234250911049
NODATA_value  -3.4028230607370965251e+38
396.7501220703125 397.056427001953125 396.810302734375 396.600921630859375 396.602508544921875 396.500579833984375 394.75408935546875 394.72210693359375 394.52337646484375 395.17657470703125 394.845062255859375 392.7738037109375 392.268768310546875 391.8157958984375 388.4632568359375 391.687896728515625 395.377777099609375 393.153076171875 392.78564453125 392.3509521484375 391.76226806640625 391.73321533203125 394.052154541015625 395.42431640625 396.064544677734375 396.225738525390625 395.951385498046875 396.171783447265625 396.1080322265625 396.27020263671875 396.629974365234375 397.212799072265625 397.914459228515625 400.0638427734375 401.008056640625 401.667022705078125 401.93548583984375 400.982574462890625 399.002838134765625 395.71026611328125 395.470611572265625 394.813690185546875 397.240264892578125 397.648681640625 398.54583740234375 404.38623046875 405.773773193359375 408.587371826171875 409.706512451171875 410.1717529296875 408.249267578125 407.6669921875 409.07391357421875 411.84051513671875 414.632598876953125 415.991058349609375 418.6397705078125 420.382415771484375 418.491912841796875 418.424560546875 418.432861328125 418.9139404296875 423.744354248046875 423.43505859375 425.204681396484375 425.140045166015625 424.8994140625 428.54833984375 428.174957275390625 426.966400146484375 426.169281005859375 424.60638427734375 421.5986328125 423.31951904296875 420.346893310546875 414.102020263671875 410.921722412109375 407.7646484375 408.441864013671875 409.0718994140625 408.39404296875 403.952056884765625 402.163665771484375 399.5389404296875 402.540191650390625 403.816680908203125 401.75390625 401.27728271484375 404.76837158203125 406.0372314453125 406.0411376953125 410.37017822265625 414.217010498046875 417.243072509765625 416.75421142578125 417.4205322265625 416.376190185546875 414.872955322265625 412.260528564453125 409.754791259765625 408.095733642578125 407.647216796875 406.866424560546875 402.032440185546875 401.353851318359375 395.860992431640625 394.758758544921875 393.221160888671875 386.348663330078125 383.676788330078125 383.181396484375 382.5565185546875 381.46142578125 383.06683349609375 382.428192138671875 382.653900146484375 384.18927001953125 386.353759765625 386.77978515625 384.85821533203125 384.545166015625 385.875732421875 386.61895751953125 386.0389404296875 383.5301513671875 383.514862060546875 383.16314697265625 380.5452880859375 378.004638671875 372.99981689453125 372.59967041015625 371.2281494140625 370.087615966796875 368.3310546875 366.72662353515625 365.5491943359375 366.13836669921875 364.991485595703125 363.87066650390625 362.96270751953125 362.626800537109375 362.543670654296875 360.031707763671875 359.577392578125 357.07196044921875 355.955535888671875 356.0758056640625 353.978424072265625 353.2176513671875 352.918914794921875 353.1661376953125 351.74530029296875 351.681884765625 351.130645751953125 351.058013916015625 350.02935791015625 349.231536865234375
393.46563720703125 395.509979248046875 395.174102783203125 395.63958740234375 395.2867431640625 395.59344482421875 394.265472412109375 393.594818115234375 393.996978759765625 393.631378173828125 393.37127685546875 391.9410400390625 390.7918701171875 389.157135009765625 388.4300537109375 394.19647216796875 392.592376708984375 392.265594482421875 391.56982421875 391.425445556640625 391.1395263671875 392.369476318359375 393.9666748046875 396.205596923828125 396.353759765625 396.128631591796875 395.7537841796875 395.65643310546875 395.429901123046875 395.89141845703125 395.575836181640625 396.99090576171875 397.90325927734375 398.715423583984375 399.9263916015625 400.66571044921875 400.2337646484375 397.59698486328125 396.551666259765625 395.319488525390625 394.38739013671875 394.081817626953125 396.611907958984375 396.860870361328125 400.222625732421875 404.0767822265625 405.4278564453125 407.097076416015625 405.763092041015625 405.979461669921875 405.8067626953125 406.432098388671875 408.607269287109375 409.619384765625 414.942352294921875 416.736572265625 419.706756591796875 420.069976806640625 419.133270263671875 419.431182861328125 420.281707763671875 420.825103759765625 425.97796630859375 426.277587890625 427.69671630859375 428.416473388671875 428.679901123046875 433.702117919921875 432.751861572265625 432.23382568359375 430.163848876953125 428.415924072265625 429.830047607421875 424.627105712890625 421.085693359375 415.477783203125 410.528564453125 409.715423583984375 410.807830810546875 408.8836669921875 408.02423095703125 403.59625244140625 402.301025390625 400.64404296875 405.431121826171875 404.132293701171875 403.119110107421875 403.967071533203125 407.104400634765625 407.6331787109375 411.2137451171875 413.3414306640625 415.72796630859375 417.936248779296875 418.3128662109375 416.93109130859375 416.22052001953125 415.799072265625 411.021484375 407.394317626953125 405.781768798828125 405.04779052734375 404.561859130859375 400.259674072265625 398.791259765625 395.2684326171875 394.284759521484375 392.7279052734375 388.430755615234375 382.95843505859375 382.43682861328125 381.98046875 380.661773681640625 381.460662841796875 379.931396484375 380.78594970703125 381.913482666015625 386.4464111328125 386.647796630859375 383.625213623046875 382.985443115234375 384.159332275390625 384.73016357421875 383.9981689453125 381.223876953125 381.913330078125 381.62457275390625 379.048431396484375 376.3135986328125 373.3792724609375 372.528839111328125 371.18231201171875 369.00042724609375 368.65966796875 365.403656005859375 364.772674560546875 364.28900146484375 363.289276123046875 362.804534912109375 362.282440185546875 362.043304443359375 361.287384033203125 359.180755615234375 358.236572265625 356.745269775390625 356.340606689453125 355.732025146484375 355.368408203125 354.318328857421875 354.15032958984375 355.262176513671875 353.7203369140625 352.294342041015625 351.318267822265625 351.0115966796875 350.5 349.17083740234375
393.53289794921875 392.955078125 394.09075927734375 394.485443115234375 393.92950439453125 393.3812255859375 393.704345703125 393.10894775390625 392.968719482421875 392.346954345703125 392.32879638671875 390.605621337890625 390.38983154296875 388.18853759765625 388.5301513671875 389.43292236328125 391.473663330078125 391.165313720703125 390.36639404296875 390.0953369140625 390.430328369140625 393.263946533203125 394.83160400390625 396.346038818359375 396.68463134765625 396.05267333984375 395.79534912109375 394.848388671875 394.686859130859375 394.5496826171875 394.343505859375 395.1273193359375 397.419830322265625 397.74517822265625 398.548919677734375 399.929656982421875 397.248992919921875 396.3363037109375 394.891326904296875 394.57879638671875 393.82208251953125 394.10009765625 395.63970947265625 397.7364501953125 400.430389404296875 402.6463623046875 405.10430908203125 402.928619384765625 403.927978515625 404.670196533203125 405.274688720703125 404.8514404296875 409.5396728515625 411.66241455078125 415.6563720703125 417.419403076171875 419.462554931640625 419.9910888671875 418.7142333984375 420.18414306640625 421.686614990234375 423.64892578125 427.04754638671875 428.440704345703125 430.54241943359375 432.150390625 433.190399169921875 438.844940185546875 439.50146484375 438.566497802734375 436.60968017578125 430.99664306640625 431.27777099609375 428.148895263671875 420.0238037109375 416.5576171875 412.243896484375 410.251007080078125 410.721221923828125 409.82843017578125 406.78497314453125 405.533355712890625 402.2982177734375 406.294830322265625 406.914794921875 405.574066162109375 404.80450439453125 404.951171875 408.724822998046875 410.68206787109375 412.721893310546875 414.661224365234375 415.582183837890625 418.102630615234375 418.14691162109375 416.666015625 414.555755615234375 414.51373291015625 409.45635986328125 404.617218017578125 404.04791259765625 402.396331787109375 402.20306396484375 398.671539306640625 394.88720703125 392.3154296875 391.555908203125 390.477630615234375 387.5596923828125 384.433349609375 381.610595703125 382.09429931640625 379.158935546875 380.319580078125 378.297332763671875 380.91143798828125 380.80810546875 381.582061767578125 384.927001953125 380.590118408203125 380.320098876953125 382.58447265625 382.64129638671875 382.420318603515625 379.63299560546875 380.453948974609375 380.202117919921875 380.049102783203125 378.715728759765625 374.231964111328125 373.44659423828125 371.346588134765625 370.869049072265625 368.626220703125 366.523468017578125 364.133148193359375 363.8428955078125 362.57855224609375 362.010650634765625 362.078125 359.93505859375 358.45233154296875 357.763336181640625 357.75860595703125 356.639495849609375 356.399871826171875 356.415496826171875 356.05743408203125 355.7342529296875 355.351287841796875 356.345184326171875 355.480926513671875 354.375396728515625 352.73712158203125 350.971954345703125 350.2545166015625 349.734344482421875
392.4454345703125 391.409210205078125 392.867645263671875 393.78948974609375 392.89154052734375 392.88751220703125 392.837310791015625 392.41143798828125 391.52569580078125 391.4884033203125 391.24896240234375 389.588531494140625 388.85498046875 387.47882080078125 388.48236083984375 390.581573486328125 390.249969482421875 389.78271484375 389.5263671875 389.48065185546875 390.41864013671875 392.6290283203125 395.3978271484375 396.478363037109375 397.054351806640625 396.496856689453125 394.976654052734375 394.476104736328125 393.62200927734375 393.510467529296875 393.578521728515625 393.7384033203125 395.017852783203125 396.396728515625 396.63970947265625 397.581298828125 394.68316650390625 394.21673583984375 393.8597412109375 393.322113037109375 393.297332763671875 393.9913330078125 394.93988037109375 396.488983154296875 399.876007080078125 401.7755126953125 401.859283447265625 401.94403076171875 401.9713134765625 403.01727294921875 403.776824951171875 405.547027587890625 410.850555419921875 413.08538818359375 414.810882568359375 418.3853759765625 419.69561767578125 418.7142333984375 420.1866455078125 420.8369140625 423.011322021484375 426.81207275390625 430.576568603515625 431.279327392578125 433.279144287109375 434.468963623046875 437.677276611328125 442.347808837890625 443.59735107421875 441.263519287109375 438.04315185546875 436.384857177734375 431.55230712890625 425.0517578125 416.001739501953125 412.8306884765625 412.363250732421875 412.845062255859375 412.057098388671875 411.2073974609375 405.572845458984375 404.0465087890625 402.727630615234375 408.7335205078125 409.028961181640625 406.064056396484375 406.1990966796875 407.208831787109375 410.813934326171875 411.9005126953125 412.693328857421875 415.439544677734375 417.006256103515625 418.05877685546875 416.958099365234375 416.249786376953125 414.522705078125 411.74737548828125 404.89019775390625 402.343109130859375 401.5986328125 400.880584716796875 399.901275634765625 396.912689208984375 396.13238525390625 389.706329345703125 389.78570556640625 388.929351806640625 384.524505615234375 383.372161865234375 380.844696044921875 380.765472412109375 380.29632568359375 378.833587646484375 377.961761474609375 377.163177490234375 379.235870361328125 380.354522705078125 381.24493408203125 377.278900146484375 378.432891845703125 379.314239501953125 380.14178466796875 380.2655029296875 379.707550048828125 379.5386962890625 378.899688720703125 378.091583251953125 376.545654296875 375.391693115234375 374.403533935546875 373.373077392578125 371.786285400390625 368.64459228515625 366.58209228515625 364.560211181640625 363.920440673828125 362.99774169921875 362.23858642578125 360.924896240234375 360.26123046875 359.166839599609375 358.863067626953125 358.361236572265625 358.1641845703125 357.280517578125 358.471038818359375 358.179931640625 357.873443603515625 357.705474853515625 357.3597412109375 356.819000244140625 353.60833740234375 351.73162841796875 351.060028076171875 350.316314697265625 351.47015380859375
391.091888427734375 390.43157958984375 391.224639892578125 392.082733154296875 392.3751220703125 391.64166259765625 391.279052734375 391.005767822265625 390.67626953125 389.865203857421875 388.763458251953125 388.182464599609375 387.772125244140625 387.206329345703125 391.302490234375 391.235992431640625 389.51043701171875 388.4945068359375 388.760589599609375 388.919189453125 390.852691650390625 393.7447509765625 395.658538818359375 396.85479736328125 397.09039306640625 396.100738525390625 394.96832275390625 394.4296875 392.861297607421875 392.253936767578125 392.140228271484375 391.990875244140625 392.841766357421875 393.443206787109375 394.505889892578125 395.38226318359375 393.406768798828125 392.752960205078125 392.543243408203125 392.543243408203125 392.807373046875 394.15240478515625 395.10797119140625 397.053558349609375 398.2994384765625 399.99310302734375 400.186859130859375 400.082122802734375 400.03466796875 402.186431884765625 405.9468994140625 407.141448974609375 410.25543212890625 413.822296142578125 415.01904296875 417.4144287109375 418.7142333984375 419.42669677734375 421.43310546875 423.24456787109375 425.5281982421875 429.5933837890625 432.17315673828125 433.45367431640625 435.396270751953125 437.577239990234375 439.32501220703125 445.75848388671875 446.376434326171875 445.213836669921875 440.703948974609375 438.3887939453125 430.290283203125 424.89910888671875 419.192657470703125 413.456695556640625 412.622344970703125 412.0472412109375 410.81005859375 409.803558349609375 406.333251953125 403.237457275390625 405.10064697265625 409.89410400390625 408.680084228515625 408.0537109375 408.13385009765625 408.8717041015625 410.99951171875 412.983978271484375 413.676544189453125 414.888946533203125 417.573455810546875 418.91015625 418.036224365234375 414.59307861328125 412.1553955078125 408.761260986328125 402.83563232421875 402.01068115234375 400.142303466796875 399.17132568359375 397.091888427734375 395.08880615234375 392.80072021484375 390.78997802734375 387.3165283203125 387.324798583984375 382.5089111328125 382.004913330078125 381.338531494140625 379.419830322265625 379.419830322265625 381.3331298828125 378.552886962890625 378.27032470703125 376.77117919921875 377.492523193359375 374.8853759765625 374.698486328125 375.20098876953125 376.031890869140625 378.654541015625 378.597503662109375 377.77423095703125 377.725250244140625 377.183624267578125 376.046295166015625 375.08111572265625 375.351165771484375 375.65087890625 374.7386474609375 371.698516845703125 368.2735595703125 367.3818359375 365.980743408203125 364.606719970703125 363.7138671875 362.8726806640625 360.9923095703125 360.623199462890625 360.41021728515625 359.17047119140625 359.02410888671875 360.27166748046875 360.07464599609375 359.83123779296875 359.731231689453125 359.05682373046875 359.66314697265625 357.827056884765625 355.778350830078125 354.40240478515625 351.470703125 350.388763427734375 352.92510986328125 355.02056884765625
390.309051513671875 390.303619384765625 390.642913818359375 390.90142822265625 391.307861328125 390.134063720703125 389.814422607421875 389.3607177734375 389.3162841796875 388.71612548828125 387.45245361328125 387.47467041015625 387.03900146484375 387.15277099609375 388.67926025390625 388.282196044921875 387.9114990234375 387.654052734375 388.1279296875 389.16033935546875 392.2205810546875 393.79095458984375 394.527679443359375 397.045623779296875 397.421112060546875 396.981658935546875 393.644317626953125 393.329833984375 393.1573486328125 390.7890625 391.0047607421875 390.18359375 391.444488525390625 391.9053955078125 392.960540771484375 393.218536376953125 392.25408935546875 392.68182373046875 392.743133544921875 392.543243408203125 393.567474365234375 393.486419677734375 394.87115478515625 397.9334716796875 399.090118408203125 400.255340576171875 399.3404541015625 398.996978759765625 400.516571044921875 401.836212158203125 405.437164306640625 408.459869384765625 411.84100341796875 413.689178466796875 416.36669921875 417.7791748046875 417.900146484375 419.303558349609375 421.841461181640625 425.560089111328125 427.5484619140625 429.4537353515625 434.20526123046875 435.345428466796875 437.115997314453125 440.426055908203125 442.613861083984375 446.06781005859375 449.07830810546875 447.57110595703125 442.55682373046875 439.241363525390625 433.640167236328125 422.228057861328125 418.296661376953125 416.4212646484375 413.340667724609375 415.3968505859375 412.653045654296875 407.6495361328125 406.019744873046875 405.428131103515625 408.718231201171875 410.2760009765625 409.3458251953125 408.955169677734375 410.135345458984375 410.793426513671875 412.877716064453125 411.7431640625 415.298736572265625 415.964691162109375 417.740447998046875 417.796539306640625 415.9306640625 412.559906005859375 409.622100830078125 406.86590576171875 400.069854736328125 399.905029296875 399.060546875 396.572418212890625 395.901123046875 393.89874267578125 390.4183349609375 388.476593017578125 385.769439697265625 384.42633056640625 387.627716064453125 386.04937744140625 382.8817138671875 382.021636962890625 381.03521728515625 382.34027099609375 381.68975830078125 377.913909912109375 377.28851318359375 375.175689697265625 376.096435546875 375.122039794921875 373.61566162109375 373.04376220703125 374.113433837890625 376.614044189453125 374.66436767578125 374.674407958984375 373.553497314453125 374.10552978515625 374.842010498046875 375.14404296875 374.7403564453125 374.280609130859375 372.139495849609375 370.58807373046875 368.944610595703125 367.804718017578125 366.277618408203125 362.7611083984375 361.610260009765625 360.801788330078125 361.66046142578125 362.697906494140625 361.981597900390625 361.5128173828125 362.07861328125 362.198272705078125 362.288360595703125 361.393310546875 360.7308349609375 360.31719970703125 358.323333740234375 354.2933349609375 353.2308349609375 351.1646728515625 351.45452880859375 354.002655029296875 357.0338134765625
388.831878662109375 388.7991943359375 389.835418701171875 389.50885009765625 389.845428466796875 389.02984619140625 388.822265625 388.432464599609375 388.132080078125 387.859588623046875 386.9326171875 386.980804443359375 386.980804443359375 387.228973388671875 387.067291259765625 386.336151123046875 386.496002197265625 386.947967529296875 388.982391357421875 390.252471923828125 391.70672607421875 392.5604248046875 394.063446044921875 395.963226318359375 396.993377685546875 396.425201416015625 392.404632568359375 391.431427001953125 390.23876953125 389.9166259765625 389.91241455078125 391.251434326171875 391.781890869140625 391.972015380859375 391.94537353515625 392.18975830078125 392.597442626953125 392.25408935546875 392.4139404296875 392.4139404296875 392.571136474609375 395.08740234375 396.495330810546875 397.8953857421875 398.958465576171875 399.63037109375 398.996978759765625 398.996978759765625 401.3284912109375 403.88739013671875 406.557281494140625 409.430938720703125 412.916473388671875 414.441558837890625 415.451416015625 417.271392822265625 416.675689697265625 421.260467529296875 423.011077880859375 425.686981201171875 429.012939453125 431.173736572265625 434.6435546875 438.74981689453125 440.64013671875 444.257965087890625 444.432342529296875 449.49322509765625 449.067962646484375 447.56243896484375 445.862640380859375 439.404449462890625 433.006500244140625 425.851348876953125 418.62359619140625 417.36895751953125 414.895843505859375 415.57440185546875 413.591094970703125 407.385711669921875 406.4278564453125 406.10748291015625 409.717529296875 410.665863037109375 410.772369384765625 411.179534912109375 411.478729248046875 413.632049560546875 414.95111083984375 416.1856689453125 417.920196533203125 416.958404541015625 416.295654296875 416.513885498046875 414.92413330078125 413.33831787109375 408.75311279296875 403.84112548828125 401.469482421875 399.24945068359375 398.08135986328125 396.73248291015625 394.81781005859375 392.66827392578125 389.68182373046875 388.264801025390625 387.778076171875 387.76959228515625 390.65179443359375 389.56640625 384.4407958984375 383.8673095703125 382.868499755859375 383.987701416015625 383.70599365234375 379.52728271484375 378.012725830078125 377.32501220703125 377.390228271484375 376.32611083984375 374.881988525390625 372.538482666015625 372.1827392578125 371.668121337890625 371.3914794921875 371.722503662109375 371.875152587890625 373.014617919921875 374.204010009765625 373.70062255859375 373.39544677734375 374.050811767578125 372.90447998046875 371.2574462890625 370.47314453125 367.77685546875 366.431121826171875 364.73931884765625 361.358978271484375 363.401702880859375 364.759490966796875 364.061676025390625 363.495880126953125 363.018157958984375 364.203338623046875 364.028961181640625 363.94049072265625 363.00604248046875 362.025970458984375 359.93572998046875 357.07403564453125 353.532745361328125 352.11669921875 351.1646728515625 357.2349853515625 357.550811767578125 357.900054931640625
387.937744140625 388.145751953125 389.01251220703125 388.6837158203125 388.899078369140625 388.343658447265625 388.132781982421875 387.839813232421875 387.47198486328125 387.275848388671875 386.61248779296875 387.213470458984375 387.514984130859375 387.236846923828125 385.863555908203125 385.483123779296875 386.138702392578125 387.4896240234375 388.7860107421875 391.41522216796875 391.5155029296875 391.15521240234375 393.51519775390625 395.315765380859375 395.486053466796875 394.032012939453125 390.404632568359375 388.98431396484375 388.760009765625 388.851806640625 390.4200439453125 392.713653564453125 392.9176025390625 392.451995849609375 392.326324462890625 392.3353271484375 393.621917724609375 392.72052001953125 392.995513916015625 392.4139404296875 392.4139404296875 397.02032470703125 397.854949951171875 398.1446533203125 398.747833251953125 398.996978759765625 399.64837646484375 400.77197265625 401.361785888671875 404.03411865234375 407.34552001953125 409.861572265625 413.040496826171875 413.858673095703125 414.5108642578125 416.89111328125 416.675689697265625 420.872802734375 424.9908447265625 426.15704345703125 427.796356201171875 432.46484375 437.02581787109375 440.901580810546875 443.316802978515625 445.637359619140625 447.451446533203125 448.542449951171875 448.357269287109375 446.28692626953125 443.894805908203125 441.680511474609375 428.388458251953125 424.263885498046875 423.498199462890625 419.306427001953125 417.863555908203125 414.491729736328125 410.6961669921875 409.074432373046875 407.960662841796875 408.85833740234375 410.869140625 410.80596923828125 411.345428466796875 412.0108642578125 413.417724609375 414.61614990234375 415.821563720703125 416.309173583984375 417.44158935546875 416.942413330078125 416.108062744140625 416.814727783203125 413.9012451171875 411.9473876953125 408.56427001953125 403.457366943359375 403.38482666015625 399.234405517578125 397.3026123046875 395.29901123046875 393.310791015625 393.9610595703125 392.8511962890625 392.15032958984375 391.4697265625 392.201385498046875 394.4195556640625 391.540435791015625 388.348876953125 385.2237548828125 384.804534912109375 386.335540771484375 386.667449951171875 384.687713623046875 380.88812255859375 379.78826904296875 381.22125244140625 378.4000244140625 377.1046142578125 374.576629638671875 372.843170166015625 372.021881103515625 370.186309814453125 370.62872314453125 370.626251220703125 371.01922607421875 370.372802734375 371.239227294921875 373.200958251953125 373.620819091796875 372.833648681640625 371.08624267578125 370.86346435546875 368.17950439453125 366.54937744140625 365.209228515625 363.44586181640625 363.25689697265625 363.25689697265625 364.404388427734375 364.799591064453125 364.990997314453125 365.4429931640625 365.534423828125 365.41650390625 363.1556396484375 362.5570068359375 359.13885498046875 356.490234375 354.813995361328125 351.868927001953125 351.1646728515625 355.380584716796875 357.579498291015625 356.34228515625
386.76348876953125 387.154876708984375 387.508758544921875 388.0223388671875 388.125152587890625 387.42791748046875 387.361053466796875 387.040618896484375 386.731842041015625 386.61248779296875 386.623565673828125 387.709442138671875 387.567840576171875 387.479217529296875 385.076904296875 384.99456787109375 385.0552978515625 388.3255615234375 389.456268310546875 390.71905517578125 389.783966064453125 390.836273193359375 391.952911376953125 392.90289306640625 393.303985595703125 391.118072509765625 387.820281982421875 387.933502197265625 388.213470458984375 390.453033447265625 392.093719482421875 393.38525390625 393.812713623046875 393.476165771484375 393.058685302734375 392.73016357421875 393.917572021484375 394.610260009765625 394.0908203125 393.3057861328125 394.59906005859375 397.7288818359375 398.8863525390625 398.32452392578125 399.140655517578125 399.470611572265625 399.370635986328125 399.999755859375 402.18829345703125 403.282379150390625 407.32781982421875 410.183074951171875 411.602142333984375 413.12109375 413.456024169921875 414.533416748046875 419.91192626953125 423.061309814453125 425.90875244140625 428.189056396484375 430.310546875 434.5374755859375 439.351654052734375 441.53564453125 447.560455322265625 449.44195556640625 449.920989990234375 447.26116943359375 446.453155517578125 444.716064453125 440.711761474609375 438.679107666015625 426.576812744140625 424.732757568359375 422.669586181640625 420.7152099609375 419.863616943359375 415.95428466796875 410.61212158203125 411.47662353515625 412.021148681640625 410.786224365234375 411.466064453125 410.936126708984375 412.4322509765625 413.013092041015625 414.22314453125 415.48089599609375 415.152099609375 415.383575439453125 416.479095458984375 416.5054931640625 416.748321533203125 415.883819580078125 413.7098388671875 410.563629150390625 408.368560791015625 404.223419189453125 407.49322509765625 406.097381591796875 397.817138671875 395.690093994140625 394.723907470703125 395.79901123046875 395.849334716796875 394.69879150390625 395.767425537109375 394.65234375 394.545440673828125 391.8992919921875 390.12335205078125 389.99993896484375 389.10211181640625 390.833770751953125 389.18353271484375 386.70477294921875 384.951812744140625 381.7767333984375 381.97296142578125 380.895782470703125 377.835357666015625 377.00323486328125 372.87591552734375 372.131866455078125 370.9290771484375 369.251495361328125 369.6488037109375 369.008209228515625 369.179290771484375 369.4755859375 370.207427978515625 372.29888916015625 371.618072509765625 371.10491943359375 369.5484619140625 370.131072998046875 367.44049072265625 366.25732421875 365.336090087890625 364.160797119140625 365.800018310546875 368.20831298828125 366.71087646484375 366.27630615234375 366.410491943359375 366.829986572265625 365.992095947265625 364.380584716796875 362.426910400390625 358.662841796875 354.720672607421875 353.174285888671875 352.4915771484375 351.33624267578125 356.830291748046875 356.947174072265625 355.87762451171875
386.730316162109375 386.127105712890625 386.788787841796875 386.733489990234375 387.546112060546875 386.87237548828125 386.554290771484375 386.32061767578125 386.224456787109375 385.9947509765625 389.4144287109375 389.210693359375 388.014251708984375 387.354827880859375 386.80169677734375 384.3201904296875 384.653411865234375 386.6265869140625 389.8184814453125 390.23492431640625 387.289276123046875 389.787628173828125 390.19415283203125 390.202423095703125 389.566070556640625 386.572998046875 387.0858154296875 387.1434326171875 388.62152099609375 391.9310302734375 392.5411376953125 394.489471435546875 394.4317626953125 394.1927490234375 393.56854248046875 392.73016357421875 394.7196044921875 394.5972900390625 395.490966796875 394.889129638671875 396.18218994140625 399.09942626953125 399.03460693359375 398.57855224609375 398.32452392578125 398.32452392578125 401.289154052734375 401.859161376953125 403.62957763671875 403.468353271484375 405.783355712890625 409.121185302734375 411.420654296875 412.595489501953125 412.6451416015625 415.353729248046875 419.8665771484375 424.359405517578125 427.226806640625 429.6441650390625 431.5692138671875 436.35723876953125 443.244476318359375 446.54486083984375 448.6298828125 449.27545166015625 448.7904052734375 445.56036376953125 442.86328125 441.466094970703125 435.7745361328125 430.75946044921875 424.27105712890625 424.30615234375 424.27105712890625 426.064605712890625 419.785003662109375 414.90240478515625 413.97137451171875 414.300201416015625 413.97027587890625 412.54229736328125 413.352752685546875 413.435791015625 414.28717041015625 414.464385986328125 415.02362060546875 415.84735107421875 415.4444580078125 415.408416748046875 415.29425048828125 415.684844970703125 416.92559814453125 414.97540283203125 414.5877685546875 412.245391845703125 409.407806396484375 412.252349853515625 410.58734130859375 408.2349853515625 403.122344970703125 399.687469482421875 397.834075927734375 400.719940185546875 399.132080078125 398.76153564453125 398.395050048828125 397.23193359375 396.6396484375 393.567718505859375 393.581451416015625 393.47802734375 392.1085205078125 393.596435546875 392.124298095703125 388.152740478515625 385.838897705078125 384.722015380859375 382.395721435546875 381.505950927734375 378.769256591796875 376.407867431640625 373.933990478515625 372.31317138671875 370.421539306640625 369.136749267578125 368.805938720703125 368.5738525390625 368.2396240234375 369.23651123046875 370.54718017578125 371.06597900390625 370.500823974609375 369.774810791015625 370.65447998046875 370.712127685546875 368.04095458984375 365.675750732421875 364.99072265625 366.344085693359375 368.228363037109375 368.624267578125 368.246490478515625 367.19512939453125 366.374969482421875 366.730010986328125 366.123291015625 364.965667724609375 360.787078857421875 356.879852294921875 355.16131591796875 352.80499267578125 351.81256103515625 351.71759033203125 354.546630859375 355.60699462890625 354.668975830078125
385.686187744140625 385.034454345703125 386.2564697265625 386.13873291015625 386.572418212890625 385.982513427734375 385.813720703125 385.666351318359375 385.339691162109375 386.088287353515625 391.822235107421875 389.106658935546875 388.21978759765625 387.178558349609375 386.75616455078125 385.811767578125 383.6324462890625 385.82342529296875 387.434417724609375 387.351165771484375 384.24713134765625 385.577606201171875 385.779205322265625 386.004974365234375 386.4471435546875 385.693359375 386.321807861328125 389.647003173828125 390.90313720703125 391.76678466796875 395.4781494140625 396.411285400390625 396.142059326171875 394.69049072265625 394.226318359375 392.8663330078125 396.0946044921875 395.723968505859375 396.18377685546875 396.828369140625 397.01605224609375 398.5509033203125 399.357391357421875 398.72515869140625 398.32452392578125 398.677490234375 400.75555419921875 400.562591552734375 401.838409423828125 405.219329833984375 405.010162353515625 407.838897705078125 411.32769775390625 411.1534423828125 412.4334716796875 416.18353271484375 422.495574951171875 425.53289794921875 427.91790771484375 429.50604248046875 433.671630859375 437.74365234375 442.071685791015625 447.9058837890625 448.7515869140625 448.619903564453125 446.76287841796875 442.965606689453125 439.418731689453125 436.132568359375 431.817718505859375 425.9454345703125 424.27105712890625 424.27105712890625 425.24786376953125 424.2117919921875 422.41204833984375 417.219482421875 417.954071044921875 416.62750244140625 415.138092041015625 413.887115478515625 415.263519287109375 415.225860595703125 415.852783203125 414.86566162109375 415.2984619140625 416.439361572265625 414.9986572265625 414.826080322265625 414.840087890625 416.3546142578125 415.222900390625 414.758026123046875 414.7994384765625 414.197601318359375 412.21649169921875 412.786041259765625 412.533966064453125 406.51885986328125 406.69873046875 406.246124267578125 401.006378173828125 403.39337158203125 401.453887939453125 401.903289794921875 401.516998291015625 398.12115478515625 396.4034423828125 395.486846923828125 394.359710693359375 394.47369384765625 395.13348388671875 393.267547607421875 392.674774169921875 389.06768798828125 386.443023681640625 383.809234619140625 381.92987060546875 380.54193115234375 379.184600830078125 375.66815185546875 374.0906982421875 372.759521484375 369.564605712890625 368.9251708984375 368.37274169921875 368.12091064453125 367.034271240234375 368.1600341796875 369.0020751953125 369.2745361328125 369.160675048828125 369.032806396484375 370.1201171875 369.798309326171875 367.738372802734375 366.21246337890625 365.9117431640625 370.324615478515625 369.7567138671875 369.058074951171875 369.15069580078125 367.367645263671875 366.1815185546875 366.540069580078125 365.532745361328125 362.958770751953125 360.89825439453125 355.1839599609375 353.953521728515625 353.22113037109375 352.18109130859375 352.607177734375 356.696624755859375 357.768218994140625 356.921783447265625
384.977752685546875 384.24908447265625 384.573028564453125 385.08758544921875 385.4283447265625 384.979339599609375 385.004425048828125 384.73809814453125 385.717559814453125 389.82220458984375 391.256988525390625 388.79071044921875 387.41619873046875 387.035369873046875 386.510528564453125 385.91741943359375 383.499542236328125 385.181671142578125 385.396453857421875 384.01025390625 383.22119140625 383.522216796875 384.190216064453125 385.06414794921875 385.52508544921875 386.004852294921875 388.5701904296875 390.064666748046875 391.934326171875 393.30242919921875 396.177764892578125 396.802764892578125 397.016082763671875 394.063262939453125 393.13946533203125 393.5908203125 397.058013916015625 397.30975341796875 397.3779296875 398.624847412109375 398.37493896484375 398.202301025390625 398.379608154296875 398.776947021484375 398.88995361328125 399.972412109375 401.39056396484375 400.386505126953125 402.56329345703125 403.9742431640625 406.32159423828125 407.73162841796875 412.049530029296875 411.1534423828125 413.59283447265625 419.3203125 422.300079345703125 424.359405517578125 427.664459228515625 429.60980224609375 432.357635498046875 438.6551513671875 443.2249755859375 446.294158935546875 447.47039794921875 446.211761474609375 441.587860107421875 438.707489013671875 435.400177001953125 427.95843505859375 427.18389892578125 426.510711669921875 425.21795654296875 425.635986328125 425.347320556640625 424.45074462890625 422.512420654296875 419.45062255859375 418.970245361328125 417.713897705078125 415.862762451171875 415.998931884765625 417.239654541015625 416.76043701171875 417.28399658203125 416.606231689453125 415.6964111328125 416.63702392578125 415.105804443359375 414.26617431640625 413.565155029296875 415.138458251953125 413.557952880859375 413.911468505859375 414.732421875 415.000640869140625 414.285491943359375 412.468658447265625 411.143280029296875 408.397979736328125 408.25274658203125 407.60028076171875 406.879669189453125 406.202911376953125 406.0518798828125 402.70733642578125 402.226806640625 400.829833984375 397.2158203125 397.155609130859375 396.15716552734375 394.573394775390625 394.9560546875 392.431488037109375 391.193115234375 389.7486572265625 385.68597412109375 383.7109375 381.697601318359375 377.702606201171875 378.052764892578125 376.275543212890625 373.58929443359375 372.245513916015625 370.29730224609375 370.018768310546875 368.096649169921875 367.529754638671875 366.233734130859375 366.537872314453125 367.901153564453125 369.010711669921875 368.981536865234375 368.41485595703125 369.6649169921875 370.218597412109375 368.741912841796875 369.296295166015625 370.3052978515625 370.3870849609375 370.3206787109375 369.856353759765625 369.48193359375 368.564117431640625 365.982513427734375 366.02423095703125 364.988677978515625 361.725982666015625 359.3544921875 353.95184326171875 353.4307861328125 352.760986328125 353.878204345703125 355.023468017578125 359.605438232421875 357.98809814453125 356.3887939453125
384.282958984375 383.036895751953125 383.62994384765625 384.841217041015625 384.88970947265625 384.21807861328125 384.058868408203125 384.174072265625 384.67449951171875 389.91070556640625 389.990478515625 387.863250732421875 386.421295166015625 386.362762451171875 386.241729736328125 385.173004150390625 383.364654541015625 383.009429931640625 382.90289306640625 382.712646484375 383.1905517578125 383.582916259765625 383.94964599609375 384.53558349609375 384.835357666015625 387.888580322265625 389.704864501953125 389.69439697265625 392.23211669921875 393.816558837890625 395.736114501953125 395.66912841796875 394.42041015625 392.821136474609375 393.5767822265625 393.923980712890625 395.55316162109375 397.93304443359375 397.88604736328125 398.588043212890625 398.02264404296875 397.741851806640625 398.848602294921875 398.379608154296875 399.051788330078125 399.9849853515625 400.386505126953125 401.3740234375 401.83685302734375 403.358734130859375 403.827301025390625 406.6842041015625 409.01251220703125 414.28350830078125 416.056060791015625 418.254180908203125 422.99871826171875 425.021575927734375 427.190216064453125 431.273712158203125 433.63885498046875 439.992645263671875 443.161773681640625 445.62255859375 444.128509521484375 443.453094482421875 439.829315185546875 430.907012939453125 430.189971923828125 427.63519287109375 426.312225341796875 423.94549560546875 424.58489990234375 425.7484130859375 424.8922119140625 423.681182861328125 419.9443359375 421.21099853515625 418.5716552734375 417.959320068359375 417.6240234375 418.0135498046875 419.155487060546875 418.2412109375 418.340423583984375 417.15631103515625 417.3463134765625 416.129547119140625 415.473876953125 412.929901123046875 412.928802490234375 412.28369140625 412.678131103515625 413.2188720703125 414.12127685546875 414.8531494140625 414.516693115234375 413.278564453125 410.831939697265625 411.099700927734375 409.363861083984375 407.463836669921875 409.008880615234375 409.26605224609375 408.7901611328125 406.562042236328125 402.642578125 401.481689453125 398.774810791015625 395.684906005859375 394.95135498046875 394.336181640625 394.47174072265625 392.2122802734375 387.61517333984375 386.288055419921875 384.5316162109375 381.851837158203125 380.245941162109375 378.209564208984375 376.777130126953125 376.023040771484375 373.791595458984375 371.80303955078125 370.284271240234375 370.122283935546875 369.146148681640625 367.492431640625 366.233734130859375 366.7403564453125 367.002044677734375 367.809234619140625 367.809234619140625 368.893524169921875 368.177459716796875 368.959503173828125 370.444305419921875 369.832305908203125 369.907012939453125 370.32916259765625 370.70074462890625 370.45782470703125 369.21075439453125 367.304290771484375 366.522857666015625 364.298309326171875 363.77752685546875 360.67510986328125 357.592041015625 354.36602783203125 353.853973388671875 353.46185302734375 354.5491943359375 358.386810302734375 360.321441650390625 359.48236083984375 356.859222412109375
383.356231689453125 382.525543212890625 382.693206787109375 383.762847900390625 383.57293701171875 383.764739990234375 384.106170654296875 384.46331787109375 386.239349365234375 388.2957763671875 386.668609619140625 386.177215576171875 385.345977783203125 385.451263427734375 385.2967529296875 383.60772705078125 382.66741943359375 382.6171875 382.373321533203125 382.549957275390625 382.9395751953125 383.74859619140625 383.77911376953125 384.576080322265625 385.495697021484375 386.098785400390625 388.35382080078125 388.547576904296875 389.64227294921875 394.715972900390625 395.423370361328125 395.15557861328125 392.326690673828125 393.298614501953125 392.90838623046875 394.71417236328125 396.41241455078125 398.034820556640625 398.088714599609375 398.399078369140625 397.478973388671875 396.7877197265625 398.439117431640625 399.341033935546875 400.57415771484375 398.76300048828125 400.779052734375 401.7044677734375 403.212493896484375 403.843109130859375 405.85333251953125 407.38543701171875 410.080322265625 413.41680908203125 417.983245849609375 419.456451416015625 421.743133544921875 424.223907470703125 427.298553466796875 431.589813232421875 434.0279541015625 436.40692138671875 442.483795166015625 443.108306884765625 442.009368896484375 441.74993896484375 434.229705810546875 429.419525146484375 425.684326171875 426.7294921875 423.94549560546875 425.105255126953125 425.09820556640625 425.630096435546875 425.48931884765625 423.904937744140625 420.967193603515625 420.693084716796875 419.323394775390625 418.140838623046875 419.829620361328125 419.345947265625 419.8902587890625 419.06256103515625 419.482696533203125 418.882476806640625 417.780029296875 416.242095947265625 414.29931640625 413.26751708984375 411.082550048828125 411.17169189453125 410.789215087890625 412.305633544921875 413.326446533203125 415.678375244140625 415.78070068359375 415.133392333984375 410.4573974609375 410.106719970703125 409.97149658203125 407.9776611328125 408.894805908203125 408.72021484375 406.34344482421875 406.0745849609375 404.476470947265625 398.409149169921875 397.629150390625 393.849029541015625 394.001251220703125 393.219207763671875 392.87969970703125 389.447784423828125 388.262664794921875 384.366943359375 383.032928466796875 381.620330810546875 377.580841064453125 377.241241455078125 375.6387939453125 374.6248779296875 373.962799072265625 369.637420654296875 370.230224609375 369.957733154296875 368.26995849609375 367.263092041015625 366.233734130859375 366.525360107421875 366.503875732421875 368.42254638671875 368.862152099609375 368.045623779296875 368.539642333984375 368.304046630859375 368.328643798828125 369.413787841796875 369.409912109375 369.206512451171875 369.868621826171875 369.111236572265625 367.909027099609375 367.46673583984375 366.52471923828125 365.08416748046875 363.345458984375 361.532318115234375 356.414093017578125 354.749755859375 353.46185302734375 356.818695068359375 359.400970458984375 361.103179931640625 361.841064453125 360.85174560546875 359.231475830078125
382.37872314453125 381.98931884765625 381.424224853515625 383.0902099609375 382.882965087890625 383.420074462890625 384.265472412109375 384.56787109375 387.496978759765625 388.45257568359375 384.679779052734375 384.29876708984375 383.75677490234375 384.082061767578125 384.1898193359375 382.227783203125 382.020233154296875 382.1854248046875 382.287933349609375 382.919158935546875 383.495147705078125 385.243377685546875 385.057342529296875 384.82025146484375 385.351531982421875 386.4349365234375 386.9459228515625 388.24029541015625 390.940521240234375 393.462738037109375 394.485809326171875 392.610809326171875 390.69525146484375 391.634735107421875 393.666473388671875 396.123870849609375 396.8770751953125 397.05816650390625 397.57586669921875 397.447662353515625 396.025604248046875 396.746002197265625 396.992767333984375 397.948486328125 399.27691650390625 398.48138427734375 400.876617431640625 401.67724609375 402.0732421875 404.408721923828125 405.671600341796875 405.71435546875 411.01055908203125 413.706268310546875 415.493560791015625 419.733001708984375 421.341400146484375 424.440185546875 426.542327880859375 429.5765380859375 433.8424072265625 435.364501953125 438.4422607421875 439.70501708984375 439.532745361328125 439.6697998046875 428.139617919921875 425.11456298828125 425.7198486328125 423.94549560546875 423.94549560546875 423.98822021484375 425.6688232421875 429.726654052734375 424.719512939453125 423.2303466796875 422.22894287109375 420.720855712890625 421.0185546875 420.658172607421875 420.718902587890625 420.49554443359375 420.557281494140625 420.449371337890625 420.5322265625 419.649627685546875 418.941802978515625 415.402069091796875 414.218597412109375 414.13226318359375 412.828765869140625 410.106719970703125 409.271453857421875 410.669921875 412.059814453125 413.264068603515625 416.822235107421875 412.31097412109375 409.663177490234375 405.04058837890625 404.111175537109375 405.7386474609375 405.735137939453125 404.984710693359375 405.37677001953125 404.3441162109375 402.930389404296875 395.15093994140625 393.69525146484375 393.19720458984375 393.162200927734375 392.187713623046875 389.0352783203125 386.817657470703125 386.11505126953125 383.509307861328125 380.174957275390625 378.971405029296875 376.637847900390625 376.375732421875 374.388671875 372.2520751953125 372.22344970703125 370.3924560546875 369.109130859375 368.851531982421875 367.67578125 366.70001220703125 365.6134033203125 365.54254150390625 366.535400390625 367.369598388671875 367.6475830078125 367.8026123046875 368.44793701171875 368.631866455078125 367.9259033203125 368.279144287109375 368.2061767578125 367.341033935546875 368.339630126953125 368.28668212890625 367.40447998046875 367.220367431640625 365.891876220703125 365.21807861328125 360.478515625 358.35736083984375 354.897857666015625 354.45623779296875 357.479400634765625 360.714569091796875 363.020263671875 361.585052490234375 362.76275634765625 361.174957275390625 361.281890869140625
381.496551513671875 380.5748291015625 380.687591552734375 382.6180419921875 387.437957763671875 388.880157470703125 388.06341552734375 387.235748291015625 386.127044677734375 385.049774169921875 383.595855712890625 381.735809326171875 381.455169677734375 381.536712646484375 382.136383056640625 381.358917236328125 381.64227294921875 381.77294921875 382.604400634765625 384.2659912109375 384.192626953125 385.3245849609375 385.7313232421875 385.195587158203125 384.82025146484375 386.21746826171875 386.7305908203125 386.7305908203125 391.500946044921875 393.367828369140625 391.446014404296875 390.815216064453125 390.69525146484375 391.91839599609375 393.101226806640625 395.30487060546875 396.048004150390625 396.208099365234375 396.402069091796875 396.077606201171875 395.05572509765625 395.876129150390625 396.05810546875 397.243499755859375 398.266265869140625 399.75897216796875 399.820770263671875 400.52227783203125 400.427978515625 402.918212890625 404.4725341796875 407.0531005859375 409.91021728515625 414.142425537109375 416.169281005859375 420.078643798828125 419.6220703125 421.466064453125 425.849761962890625 428.90234375 431.10125732421875 434.769287109375 437.4417724609375 437.946136474609375 437.538238525390625 436.81829833984375 424.72802734375 423.1697998046875 423.94549560546875 424.82049560546875 424.378143310546875 424.428558349609375 423.304931640625 428.1109619140625 423.56829833984375 423.265289306640625 420.691162109375 420.691162109375 421.48712158203125 421.75555419921875 421.669769287109375 421.90283203125 421.61236572265625 420.894500732421875 420.702606201171875 420.27862548828125 416.28509521484375 414.218597412109375 415.026885986328125 412.528839111328125 410.322723388671875 409.0235595703125 407.179473876953125 407.388702392578125 408.62664794921875 410.38934326171875 412.06341552734375 404.37127685546875 404.1685791015625 401.2847900390625 403.8419189453125 404.892242431640625 403.94000244140625 401.626861572265625 401.554901123046875 400.864471435546875 399.702178955078125 394.62127685546875 390.69329833984375 390.68402099609375 390.554290771484375 389.91778564453125 387.495819091796875 386.69122314453125 382.913238525390625 382.689117431640625 378.204925537109375 376.86138916015625 376.66143798828125 374.352569580078125 373.259521484375 372.34942626953125 372.21240234375 370.14410400390625 369.3502197265625 367.4500732421875 367.89007568359375 365.980743408203125 364.951385498046875 364.540557861328125 366.3519287109375 367.00054931640625 366.908782958984375 367.912109375 368.9381103515625 368.715667724609375 366.72442626953125 367.141693115234375 366.630035400390625 366.0262451171875 367.0743408203125 367.23974609375 367.596160888671875 366.38037109375 363.664642333984375 362.7939453125 360.447540283203125 356.36346435546875 354.45623779296875 355.717681884765625 362.8466796875 364.521697998046875 362.962493896484375 364.16680908203125 363.481170654296875 361.36572265625 362.437652587890625
380.659332275390625 380.06878662109375 381.30145263671875 384.36663818359375 387.915863037109375 387.625579833984375 387.999114990234375 387.60162353515625 387.104034423828125 381.908050537109375 380.86358642578125 380.4798583984375 380.5968017578125 380.581390380859375 380.581390380859375 381.073150634765625 381.60308837890625 382.70513916015625 384.01715087890625 384.12713623046875 385.12042236328125 385.529083251953125 387.2816162109375 385.3564453125 385.55657958984375 385.782318115234375 387.048553466796875 387.277191162109375 390.998016357421875 392.656158447265625 390.0419921875 390.76165771484375 390.392913818359375 391.5848388671875 393.588958740234375 395.341522216796875 395.583282470703125 395.1593017578125 395.320709228515625 395.454437255859375 393.828704833984375 394.66900634765625 395.863067626953125 397.122283935546875 398.542388916015625 397.90008544921875 398.413665771484375 399.82672119140625 400.32159423828125 401.39300537109375 402.26080322265625 408.303802490234375 409.97845458984375 414.15869140625 416.751220703125 418.761016845703125 419.82025146484375 420.61566162109375 421.8131103515625 428.478057861328125 430.39886474609375 431.107940673828125 434.978515625 434.819366455078125 434.488494873046875 431.505584716796875 422.2559814453125 421.956939697265625 424.620208740234375 423.675994873046875 423.081695556640625 422.203155517578125 421.17547607421875 422.150909423828125 422.572967529296875 420.691162109375 420.70361328125 421.4058837890625 422.418792724609375 422.43377685546875 422.314849853515625 422.9366455078125 421.976287841796875 421.639129638671875 420.68212890625 418.52392578125 416.588287353515625 415.431976318359375 415.1539306640625 410.684539794921875 409.985870361328125 408.912384033203125 406.58056640625 405.26153564453125 404.507537841796875 404.04302978515625 404.166259765625 400.570343017578125 396.083343505859375 396.49322509765625 401.042022705078125 402.64190673828125 400.034149169921875 399.93695068359375 399.592041015625 399.32379150390625 396.6405029296875 391.6429443359375 389.02044677734375 388.4576416015625 388.15509033203125 387.20184326171875 385.669281005859375 383.800262451171875 382.00457763671875 380.094573974609375 379.2403564453125 376.40325927734375 375.065704345703125 374.033172607421875 372.387664794921875 371.409820556640625 371.65679931640625 367.875946044921875 365.863922119140625 365.13409423828125 366.13909912109375 366.42877197265625 364.309326171875 363.609161376953125 364.8282470703125 366.370635986328125 365.867462158203125 365.825897216796875 367.6546630859375 367.73236083984375 366.915679931640625 366.667724609375 366.373046875 364.763702392578125 365.60272216796875 365.4647216796875 366.146820068359375 362.563568115234375 362.0526123046875 358.794647216796875 357.181365966796875 355.612823486328125 359.344146728515625 361.552581787109375 365.102874755859375 366.849700927734375 365.51629638671875 365.707305908203125 365.59588623046875 365.451446533203125 364.075897216796875
379.145843505859375 381.51397705078125 384.410797119140625 385.790008544921875 384.406890869140625 384.5191650390625 384.605682373046875 384.84600830078125 384.43182373046875 379.5048828125 379.394439697265625 379.61248779296875 380.317962646484375 380.79901123046875 381.75897216796875 382.592742919921875 382.989593505859375 383.662078857421875 385.76287841796875 385.592071533203125 386.51690673828125 387.64068603515625 387.3251953125 387.12664794921875 386.178375244140625 386.212646484375 387.2703857421875 387.048553466796875 388.53582763671875 390.59759521484375 389.809539794921875 390.392913818359375 391.28857421875 392.6932373046875 393.523712158203125 395.144256591796875 395.763336181640625 394.276336669921875 394.796112060546875 393.828704833984375 393.91998291015625 394.2529296875 394.744354248046875 397.13946533203125 398.164886474609375 396.713623046875 398.863677978515625 398.331787109375 401.333465576171875 402.508209228515625 405.908477783203125 407.595001220703125 409.658905029296875 412.020782470703125 416.436431884765625 416.925445556640625 417.306549072265625 418.231781005859375 421.237548828125 424.19000244140625 429.458343505859375 429.62945556640625 432.261566162109375 433.101654052734375 432.839630126953125 425.314544677734375 421.111053466796875 421.31396484375 422.288818359375 421.01348876953125 421.091094970703125 420.95831298828125 419.831268310546875 420.6361083984375 419.797943115234375 419.51519775390625 421.02899169921875 421.828460693359375 422.271636962890625 423.184173583984375 422.875244140625 423.81439208984375 422.065460205078125 421.977996826171875 418.268524169921875 417.195404052734375 417.040863037109375 416.469207763671875 414.780670166015625 412.929412841796875 409.407989501953125 409.083892822265625 408.988494873046875 406.7247314453125 404.070770263671875 402.20916748046875 400.156707763671875 398.414459228515625 396.15087890625 394.620574951171875 395.49920654296875 399.0762939453125 396.523895263671875 398.6337890625 397.72906494140625 396.091705322265625 394.657379150390625 388.5223388671875 386.975433349609375 386.713134765625 387.09503173828125 386.4261474609375 382.324615478515625 381.825347900390625 380.293365478515625 377.67169189453125 377.5001220703125 374.66082763671875 373.03607177734375 372.48406982421875 372.30426025390625 370.50579833984375 367.5018310546875 365.78594970703125 365.018707275390625 364.540191650390625 365.02655029296875 364.3336181640625 363.535308837890625 363.852996826171875 365.708404541015625 366.43231201171875 364.1749267578125 364.674560546875 366.17083740234375 366.571075439453125 366.479736328125 367.2945556640625 365.861480712890625 364.323394775390625 363.6807861328125 362.992523193359375 363.27252197265625 358.421966552734375 357.09765625 355.612823486328125 355.612823486328125 355.612823486328125 364.8367919921875 365.31689453125 366.560272216796875 367.513397216796875 365.51629638671875 367.42816162109375 366.55859375 366.6383056640625 365.75433349609375
378.1260986328125 379.506866455078125 384.299957275390625 385.325897216796875 382.778839111328125 382.31298828125 382.430633544921875 381.89013671875 380.575714111328125 378.8397216796875 379.876739501953125 381.289031982421875 382.01251220703125 381.966644287109375 385.641693115234375 384.699005126953125 385.464019775390625 385.451171875 385.459075927734375 387.398468017578125 386.69329833984375 387.809661865234375 388.324798583984375 387.961395263671875 387.455413818359375 386.61785888671875 387.4617919921875 387.657318115234375 388.96246337890625 389.488677978515625 390.525421142578125 390.933685302734375 391.36517333984375 392.959686279296875 393.508270263671875 394.534912109375 394.9532470703125 392.8050537109375 394.008941650390625 392.945098876953125 393.144989013671875 394.1690673828125 394.75177001953125 395.863525390625 396.43218994140625 395.7498779296875 398.331787109375 398.762298583984375 399.954925537109375 403.735931396484375 404.876190185546875 406.679534912109375 409.50372314453125 411.858551025390625 414.18658447265625 415.069671630859375 416.00677490234375 417.639617919921875 421.9072265625 424.00872802734375 427.8216552734375 427.1905517578125 428.586578369140625 430.13116455078125 428.41571044921875 424.71044921875 419.4681396484375 419.87652587890625 420.44097900390625 421.84112548828125 420.469024658203125 418.576446533203125 419.312652587890625 417.765838623046875 418.804351806640625 419.21380615234375 420.553802490234375 422.6204833984375 422.90728759765625 423.526947021484375 424.112823486328125 424.327117919921875 422.502349853515625 422.287506103515625 421.16180419921875 419.336181640625 418.89410400390625 418.26739501953125 414.849578857421875 412.81756591796875 411.9117431640625 408.988494873046875 409.357025146484375 408.158111572265625 404.831878662109375 404.221954345703125 399.707794189453125 399.429473876953125 398.128265380859375 396.819305419921875 393.11474609375 394.077117919921875 392.211395263671875 393.461151123046875 394.642425537109375 392.348846435546875 389.8876953125 386.309478759765625 384.686614990234375 384.79833984375 385.3638916015625 384.603729248046875 380.315582275390625 379.734222412109375 379.363555908203125 378.03643798828125 375.02691650390625 372.125335693359375 371.4329833984375 370.0867919921875 370.23577880859375 366.629547119140625 366.64495849609375 366.36993408203125 365.346832275390625 364.88372802734375 364.3336181640625 364.44805908203125 363.87359619140625 362.755401611328125 362.58074951171875 362.466705322265625 363.844573974609375 363.533660888671875 364.2232666015625 365.624481201171875 366.248809814453125 366.464508056640625 363.553985595703125 363.226409912109375 362.397247314453125 360.60009765625 360.8095703125 356.0147705078125 356.0147705078125 357.01910400390625 358.94366455078125 359.47113037109375 363.36187744140625 367.021331787109375 367.8817138671875 367.0875244140625 366.688629150390625 368.0491943359375 368.4085693359375 369.107879638671875 367.600372314453125
377.792633056640625 379.618865966796875 381.879180908203125 382.8865966796875 381.36151123046875 381.2664794921875 380.70086669921875 379.52154541015625 378.704254150390625 380.5224609375 382.15289306640625 384.5198974609375 384.669525146484375 385.163665771484375 387.994171142578125 387.724700927734375 386.799896240234375 386.39874267578125 385.95770263671875 387.4620361328125 387.0977783203125 387.98199462890625 389.7652587890625 389.25079345703125 389.116607666015625 387.9427490234375 387.52716064453125 387.613555908203125 388.032745361328125 388.86871337890625 390.76239013671875 392.39434814453125 392.984588623046875 393.810577392578125 393.628509521484375 394.1680908203125 392.0699462890625 391.556243896484375 392.08868408203125 392.73529052734375 392.38580322265625 393.46759033203125 394.5211181640625 395.4193115234375 396.45330810546875 394.622283935546875 396.449920654296875 398.946441650390625 400.30181884765625 402.177337646484375 403.599456787109375 405.49407958984375 407.042022705078125 411.924713134765625 414.068511962890625 413.5030517578125 415.264892578125 416.829376220703125 420.998779296875 422.93341064453125 424.348876953125 425.302825927734375 426.053558349609375 425.92236328125 422.841766357421875 421.01324462890625 417.64605712890625 417.95306396484375 418.471160888671875 420.740203857421875 418.731781005859375 416.164581298828125 416.77459716796875 417.668426513671875 417.918701171875 419.74200439453125 420.908721923828125 422.204559326171875 423.980926513671875 424.673553466796875 424.99969482421875 425.276275634765625 425.207427978515625 422.966339111328125 422.331451416015625 421.34228515625 419.7861328125 419.01470947265625 416.294097900390625 413.739227294921875 412.322235107421875 410.33917236328125 409.34844970703125 408.621551513671875 406.533447265625 405.247314453125 404.3560791015625 400.503204345703125 398.94024658203125 397.639068603515625 392.4615478515625 391.2095947265625 389.504241943359375 388.417999267578125 390.513885498046875 389.673431396484375 387.19171142578125 385.780914306640625 384.882232666015625 384.53790283203125 383.85687255859375 382.449127197265625 379.110687255859375 378.9400634765625 377.91729736328125 376.858428955078125 373.327392578125 371.77593994140625 370.831298828125 369.578826904296875 368.38641357421875 367.401031494140625 365.930908203125 365.614501953125 364.88372802734375 364.96429443359375 364.6728515625 366.058563232421875 365.35382080078125 363.754180908203125 361.7069091796875 361.395965576171875 361.395965576171875 361.615478515625 362.967498779296875 363.840240478515625 365.19354248046875 365.38702392578125 360.314483642578125 359.542449951171875 359.426605224609375 357.398406982421875 356.2803955078125 358.767852783203125 360.44140625 360.44110107421875 360.60113525390625 362.894775390625 365.363677978515625 366.436279296875 366.771575927734375 367.960662841796875 367.528594970703125 371.039459228515625 371.7301025390625 370.327362060546875 369.466949462890625
377.291168212890625 380.190826416015625 381.908599853515625 381.250030517578125 380.425079345703125 380.31707763671875 378.546630859375 378.1766357421875 379.29339599609375 384.00335693359375 384.93658447265625 385.803253173828125 386.68927001953125 387.572021484375 389.1962890625 389.704803466796875 389.208587646484375 388.21868896484375 387.0693359375 389.112884521484375 388.35211181640625 389.09515380859375 390.04962158203125 389.205718994140625 389.520477294921875 389.520477294921875 387.652435302734375 387.75665283203125 389.2796630859375 390.060150146484375 392.5286865234375 393.563690185546875 393.853668212890625 393.877227783203125 394.01275634765625 392.82122802734375 391.703125 391.556243896484375 391.64501953125 392.64337158203125 392.54998779296875 392.38580322265625 394.10711669921875 394.39385986328125 395.18048095703125 394.48187255859375 396.45660400390625 397.02410888671875 399.802886962890625 401.525299072265625 402.858978271484375 404.7781982421875 407.227996826171875 412.052947998046875 412.64202880859375 412.95263671875 413.220550537109375 415.712310791015625 417.63812255859375 421.46685791015625 421.45733642578125 422.199371337890625 423.367828369140625 422.717742919921875 419.371246337890625 416.79730224609375 415.457763671875 416.3914794921875 418.221771240234375 418.390533447265625 416.52325439453125 414.825592041015625 414.709442138671875 416.490142822265625 417.604888916015625 418.601898193359375 422.187347412109375 423.4176025390625 424.951507568359375 425.517852783203125 425.609344482421875 426.141937255859375 426.021514892578125 425.40081787109375 423.80438232421875 422.38067626953125 419.936004638671875 419.335235595703125 417.467620849609375 414.0052490234375 413.04791259765625 411.249847412109375 408.71978759765625 407.067596435546875 406.963714599609375 405.229248046875 401.962249755859375 399.939727783203125 399.566314697265625 397.831939697265625 393.98974609375 390.2445068359375 388.3284912109375 387.0430908203125 386.270782470703125 386.927093505859375 385.49224853515625 383.9599609375 382.244415283203125 382.3555908203125 382.232421875 381.68927001953125 377.215087890625 376.484619140625 376.0645751953125 375.806976318359375 373.883697509765625 370.6090087890625 370.0517578125 369.14923095703125 367.78302001953125 366.984619140625 366.395904541015625 366.165557861328125 366.159423828125 366.36566162109375 366.235626220703125 367.693145751953125 365.823760986328125 364.06072998046875 362.776947021484375 361.395965576171875 361.771881103515625 360.94110107421875 360.286163330078125 362.8590087890625 363.59197998046875 360.97430419921875 358.871673583984375 357.516845703125 357.3316650390625 356.30877685546875 357.428741455078125 360.86175537109375 361.864410400390625 362.229522705078125 361.94293212890625 363.287078857421875 366.398681640625 367.253021240234375 368.62762451171875 370.38909912109375 370.37408447265625 373.539093017578125 373.50927734375 372.873291015625 369.438018798828125
375.831390380859375 379.827606201171875 380.234405517578125 380.1763916015625 378.96624755859375 377.96734619140625 377.445892333984375 379.418243408203125 381.21826171875 385.149261474609375 387.499542236328125 388.21649169921875 388.0924072265625 387.610260009765625 390.71527099609375 391.41546630859375 390.7381591796875 390.921783447265625 389.3043212890625 389.991668701171875 390.17822265625 389.602203369140625 390.084228515625 389.85101318359375 390.57135009765625 390.463714599609375 388.384613037109375 388.870513916015625 390.15509033203125 393.307159423828125 393.790740966796875 393.805084228515625 393.500518798828125 393.60992431640625 393.705596923828125 391.948516845703125 392.47802734375 391.556243896484375 392.184967041015625 392.530181884765625 392.323089599609375 393.253387451171875 394.3228759765625 393.134918212890625 394.976043701171875 394.012115478515625 396.002288818359375 396.526519775390625 398.230255126953125 400.30035400390625 403.262359619140625 404.677978515625 409.10882568359375 410.998016357421875 412.02655029296875 411.066741943359375 411.089508056640625 414.486907958984375 416.744903564453125 418.976806640625 419.718170166015625 420.718902587890625 420.809326171875 419.684722900390625 417.054656982421875 414.715301513671875 415.941497802734375 416.066986083984375 415.9996337890625 414.57568359375 414.5982666015625 414.1513671875 414.66766357421875 415.975128173828125 417.843780517578125 419.6246337890625 422.688690185546875 424.651397705078125 425.34942626953125 426.518280029296875 426.7081298828125 425.940643310546875 425.707550048828125 424.94842529296875 423.938568115234375 421.40869140625 416.991912841796875 418.0081787109375 416.7850341796875 416.173370361328125 412.567047119140625 411.621795654296875 409.882598876953125 407.220611572265625 404.72344970703125 404.68646240234375 401.468048095703125 400.367706298828125 398.144378662109375 397.5377197265625 394.68902587890625 389.5733642578125 387.98187255859375 387.279266357421875 384.038726806640625 384.772430419921875 384.298675537109375 380.769073486328125 379.598876953125 380.323394775390625 380.02545166015625 379.9251708984375 375.995361328125 375.55279541015625 374.57147216796875 373.2913818359375 372.038543701171875 370.30718994140625 369.244354248046875 368.043914794921875 368.636962890625 367.102813720703125 366.95404052734375 367.6314697265625 368.157257080078125 369.596038818359375 368.571807861328125 367.954376220703125 366.607391357421875 364.271514892578125 364.061431884765625 362.912506103515625 363.4969482421875 362.24609375 360.036376953125 359.4859619140625 359.4859619140625 359.185302734375 358.148193359375 357.536529541015625 356.86669921875 358.150177001953125 359.1234130859375 362.1121826171875 363.269622802734375 364.55218505859375 365.375244140625 364.120849609375 367.02337646484375 368.137939453125 369.740509033203125 370.716156005859375 371.566131591796875 375.157196044921875 374.874114990234375 374.179351806640625 370.58990478515625
377.65521240234375 378.39215087890625 379.116943359375 379.132904052734375 377.094329833984375 377.209014892578125 377.44561767578125 379.942840576171875 383.588348388671875 387.129669189453125 388.369659423828125 389.068939208984375 389.812103271484375 389.006500244140625 390.954498291015625 391.965667724609375 392.442596435546875 391.65191650390625 391.242919921875 390.34466552734375 390.72222900390625 390.69647216796875 389.72796630859375 390.1317138671875 391.3699951171875 390.8294677734375 389.22747802734375 390.8739013671875 391.649139404296875 393.931304931640625 394.23004150390625 393.7305908203125 393.36077880859375 392.488006591796875 391.785614013671875 392.24700927734375 392.3668212890625 391.556243896484375 392.020294189453125 391.2635498046875 391.748992919921875 393.078460693359375 393.949310302734375 392.737091064453125 394.429656982421875 394.012115478515625 394.22296142578125 397.0892333984375 397.737548828125 401.72271728515625 404.2332763671875 405.10400390625 408.75762939453125 410.719879150390625 410.904205322265625 409.47430419921875 410.76214599609375 412.51690673828125 415.49346923828125 416.904083251953125 418.2540283203125 419.2510986328125 419.165863037109375 413.78594970703125 413.311065673828125 412.438720703125 415.211029052734375 415.57098388671875 415.63592529296875 412.936126708984375 412.3502197265625 413.51226806640625 414.866607666015625 416.105133056640625 418.829925537109375 420.70458984375 423.123046875 426.626953125 426.43292236328125 426.66937255859375 426.806427001953125 424.29473876953125 424.1412353515625 423.503509521484375 421.709014892578125 418.14996337890625 415.51007080078125 416.368743896484375 416.253997802734375 414.53369140625 414.009002685546875 409.87451171875 407.602294921875 405.760345458984375 402.61077880859375 402.647308349609375 399.4708251953125 397.76373291015625 397.146636962890625 395.3377685546875 393.070037841796875 388.360870361328125 386.8756103515625 386.572662353515625 384.86578369140625 383.018829345703125 381.608856201171875 379.0079345703125 378.505279541015625 378.428497314453125 378.311920166015625 376.397369384765625 374.5181884765625 373.804351806640625 372.84722900390625 372.774871826171875 370.9715576171875 369.494384765625 369.450164794921875 368.269378662109375 368.603302001953125 367.304290771484375 369.260772705078125 370.26080322265625 370.43682861328125 370.09112548828125 369.498626708984375 367.601318359375 366.053253173828125 365.51202392578125 365.747283935546875 364.506103515625 365.0523681640625 363.934173583984375 363.2208251953125 360.02349853515625 359.6640625 359.7696533203125 359.240081787109375 359.042694091796875 357.713165283203125 359.419342041015625 360.417083740234375 362.717041015625 365.644683837890625 366.013946533203125 366.601959228515625 365.976531982421875 367.56488037109375 369.326812744140625 369.909912109375 371.2833251953125 374.765045166015625 376.25146484375 376.266571044921875 373.166107177734375 367.52288818359375
377.17974853515625 377.932098388671875 377.816558837890625 377.29705810546875 376.65234375 377.4598388671875 380.740570068359375 382.80218505859375 385.820068359375 390.087158203125 391.224151611328125 391.587554931640625 391.279449462890625 391.59381103515625 392.329833984375 392.597137451171875 391.973846435546875 392.74237060546875 392.1414794921875 392.569183349609375 390.410858154296875 391.461456298828125 390.682220458984375 390.598236083984375 390.351776123046875 391.03863525390625 391.670166015625 392.1097412109375 393.28204345703125 394.433685302734375 394.221527099609375 392.80072021484375 392.80596923828125 389.915924072265625 390.84344482421875 392.055145263671875 391.556243896484375 391.7310791015625 391.69781494140625 389.2630615234375 391.17388916015625 391.48712158203125 392.737091064453125 393.112060546875 394.012115478515625 394.78399658203125 394.50701904296875 397.845611572265625 399.785980224609375 402.222412109375 405.012939453125 406.146759033203125 407.580718994140625 410.421295166015625 409.47430419921875 409.7572021484375 410.532012939453125 410.918212890625 414.461334228515625 415.528076171875 416.133209228515625 417.538330078125 416.74444580078125 415.793487548828125 410.74676513671875 412.780029296875 414.1109619140625 413.240325927734375 412.09942626953125 411.388946533203125 412.198028564453125 411.842620849609375 414.77020263671875 416.445098876953125 417.33331298828125 421.56475830078125 424.841278076171875 426.05792236328125 428.335235595703125 427.651947021484375 426.70257568359375 422.745513916015625 423.1539306640625 421.295623779296875 420.202606201171875 418.281982421875 414.81591796875 414.81591796875 415.535369873046875 413.759521484375 413.009521484375 410.2027587890625 407.888458251953125 404.80462646484375 401.18133544921875 401.263763427734375 399.18756103515625 397.067169189453125 395.63555908203125 394.804931640625 391.489837646484375 386.6705322265625 386.109588623046875 384.784515380859375 384.758697509765625 382.614227294921875 380.5601806640625 379.153594970703125 377.905120849609375 376.445587158203125 375.947296142578125 375.2972412109375 373.606475830078125 372.2498779296875 371.886749267578125 370.54071044921875 370.54071044921875 371.7464599609375 371.3128662109375 370.53125 370.02166748046875 369.716217041015625 372.187835693359375 371.6778564453125 371.26678466796875 371.125091552734375 370.41693115234375 369.66802978515625 367.894683837890625 368.3779296875 367.5682373046875 366.638763427734375 367.7947998046875 364.747467041015625 363.930511474609375 362.86004638671875 360.931976318359375 360.889862060546875 360.676788330078125 360.280609130859375 357.92950439453125 360.447265625 364.469482421875 364.33428955078125 366.53759765625 367.75341796875 368.48345947265625 367.85247802734375 370.19805908203125 369.212493896484375 372.013336181640625 374.443939208984375 375.392303466796875 378.439727783203125 378.37567138671875 372.640838623046875 371.792938232421875
374.852508544921875 375.509979248046875 375.93994140625 376.601287841796875 379.334075927734375 381.0364990234375 383.11041259765625 384.775970458984375 386.557220458984375 391.88153076171875 392.22882080078125 392.71734619140625 392.45220947265625 392.651947021484375 394.6873779296875 393.283294677734375 392.70477294921875 394.07550048828125 393.162994384765625 392.879913330078125 391.7984619140625 392.759063720703125 390.695159912109375 390.59942626953125 390.67486572265625 391.394287109375 393.30029296875 393.8057861328125 394.32159423828125 394.371124267578125 393.751922607421875 392.622955322265625 390.778717041015625 389.618560791015625 391.3779296875 390.027801513671875 390.212890625 390.725616455078125 390.96807861328125 388.5484619140625 391.456939697265625 390.888519287109375 391.20941162109375 391.957489013671875 392.736541748046875 395.17864990234375 395.91070556640625 396.89697265625 401.07208251953125 402.929656982421875 404.566192626953125 405.693939208984375 407.904541015625 408.585205078125 407.527008056640625 407.678802490234375 409.156768798828125 410.69793701171875 411.889129638671875 415.275909423828125 415.434722900390625 416.495849609375 415.400054931640625 414.771820068359375 410.74676513671875 411.47406005859375 413.915130615234375 411.602874755859375 410.896209716796875 411.476104736328125 411.699310302734375 413.052215576171875 413.460205078125 417.27337646484375 419.44775390625 421.4102783203125 426.659515380859375 428.32244873046875 429.9044189453125 429.01824951171875 425.955841064453125 421.59478759765625 421.69976806640625 421.559326171875 418.9791259765625 417.522064208984375 416.851654052734375 414.926788330078125 414.05157470703125 413.2509765625 410.398712158203125 408.2049560546875 404.47833251953125 403.382598876953125 402.31219482421875 399.920654296875 396.86328125 395.785491943359375 393.499114990234375 393.305877685546875 390.060272216796875 387.9737548828125 387.6456298828125 386.01226806640625 383.176483154296875 382.048736572265625 379.48822021484375 380.151336669921875 379.02325439453125 375.538177490234375 375.60150146484375 374.391021728515625 374.00372314453125 373.908843994140625 373.062652587890625 373.0946044921875 372.722412109375 373.3092041015625 372.264862060546875 372.662872314453125 371.176910400390625 371.541351318359375 371.29718017578125 371.6063232421875 371.792144775390625 371.840667724609375 370.465179443359375 371.501220703125 370.30267333984375 369.8590087890625 369.442779541015625 368.4176025390625 367.511505126953125 366.927459716796875 365.226226806640625 364.7545166015625 363.493438720703125 362.3660888671875 360.72674560546875 359.60662841796875 357.92950439453125 360.117950439453125 365.205230712890625 365.81585693359375 366.700714111328125 368.240753173828125 367.75341796875 369.023284912109375 372.514373779296875 373.3028564453125 374.5076904296875 377.0435791015625 377.535797119140625 379.96502685546875 378.14129638671875 375.939422607421875 375.245849609375
374.759307861328125 374.96051025390625 375.990203857421875 378.8443603515625 381.50628662109375 383.03399658203125 384.5645751953125 386.805755615234375 388.746124267578125 391.6927490234375 393.286407470703125 394.025238037109375 394.153411865234375 394.32904052734375 395.04742431640625 393.88427734375 394.06475830078125 393.91448974609375 394.504974365234375 392.837554931640625 392.230926513671875 393.12139892578125 392.514007568359375 392.25732421875 392.425384521484375 393.418243408203125 394.367034912109375 395.218292236328125 395.11151123046875 393.194244384765625 392.73089599609375 391.9022216796875 389.53338623046875 389.684356689453125 389.854248046875 389.217681884765625 389.58587646484375 389.69622802734375 389.012664794921875 388.5484619140625 389.735321044921875 389.95013427734375 390.441314697265625 392.57574462890625 393.89312744140625 395.2767333984375 395.853302001953125 396.629119873046875 398.673065185546875 403.279571533203125 403.40399169921875 405.814849853515625 407.36480712890625 407.28399658203125 406.02020263671875 405.89300537109375 407.10809326171875 409.409637451171875 411.6026611328125 413.216217041015625 415.615509033203125 415.780914306640625 415.091888427734375 411.321380615234375 410.74676513671875 411.53125 412.241790771484375 411.2381591796875 410.49835205078125 411.044708251953125 410.656829833984375 414.268463134765625 414.860443115234375 415.187225341796875 421.328369140625 426.6329345703125 429.29937744140625 431.164398193359375 432.22344970703125 430.92755126953125 426.25445556640625 424.694427490234375 420.4439697265625 419.58209228515625 419.15069580078125 417.635894775390625 416.0023193359375 413.97344970703125 413.125152587890625 411.3033447265625 409.081146240234375 404.48858642578125 403.075103759765625 401.143463134765625 401.173248291015625 399.941650390625 395.0570068359375 393.702362060546875 392.48699951171875 389.96649169921875 388.535797119140625 388.938934326171875 388.188201904296875 384.19287109375 382.20050048828125 381.41229248046875 380.338470458984375 379.0252685546875 377.9405517578125 376.819091796875 375.323455810546875 376.882537841796875 375.926971435546875 375.34881591796875 373.641265869140625 374.666229248046875 375.126251220703125 374.5255126953125 374.704345703125 375.180328369140625 374.6077880859375 371.55322265625 371.546630859375 372.19427490234375 372.512298583984375 372.043060302734375 372.3958740234375 373.067840576171875 372.674407958984375 371.466796875 371.16552734375 370.536651611328125 369.37518310546875 368.048309326171875 366.83123779296875 365.047088623046875 364.707061767578125 362.3135986328125 361.813232421875 361.06890869140625 358.7510986328125 360.66143798828125 363.693572998046875 365.453582763671875 366.703460693359375 368.130584716796875 369.357696533203125 371.007659912109375 373.8123779296875 376.312347412109375 377.44415283203125 378.5294189453125 379.382659912109375 382.3519287109375 380.552703857421875 378.723846435546875 377.4801025390625
375.3944091796875 376.63055419921875 378.148040771484375 380.7442626953125 381.524871826171875 384.582550048828125 386.292022705078125 387.591094970703125 391.94818115234375 393.325927734375 393.994659423828125 394.1484375 394.538848876953125 395.0072021484375 397.029876708984375 395.817535400390625 395.03619384765625 395.351318359375 395.118133544921875 393.876220703125 393.2081298828125 393.342193603515625 394.251068115234375 393.365234375 395.84832763671875 395.646484375 395.52410888671875 395.49798583984375 395.1873779296875 393.36431884765625 390.81719970703125 390.088226318359375 390.227508544921875 388.676300048828125 388.598480224609375 387.480010986328125 387.931304931640625 388.8609619140625 387.513458251953125 388.15802001953125 388.5194091796875 389.697662353515625 389.576995849609375 391.50140380859375 394.490203857421875 394.69512939453125 395.23492431640625 398.1126708984375 399.04058837890625 402.61663818359375 400.979888916015625 402.26263427734375 404.805755615234375 402.263031005859375 403.4202880859375 404.967315673828125 407.02923583984375 408.824066162109375 411.519500732421875 413.1212158203125 415.7613525390625 415.459991455078125 413.276153564453125 410.051483154296875 412.02264404296875 410.576568603515625 409.483062744140625 408.9471435546875 409.43365478515625 409.205596923828125 413.459503173828125 415.5037841796875 416.64300537109375 417.799163818359375 423.748504638671875 427.835968017578125 429.4708251953125 431.822296142578125 432.27801513671875 431.660614013671875 426.85406494140625 423.88079833984375 420.031707763671875 418.326568603515625 416.949859619140625 416.42633056640625 412.459442138671875 411.474151611328125 410.08941650390625 409.126129150390625 407.777130126953125 402.427581787109375 401.337005615234375 399.822601318359375 399.921142578125 398.428253173828125 394.009185791015625 392.11944580078125 390.297210693359375 388.94403076171875 386.87811279296875 387.857574462890625 386.242919921875 383.628997802734375 383.8673095703125 381.87353515625 380.342864990234375 378.540740966796875 376.6953125 375.96923828125 376.914154052734375 378.159088134765625 378.417633056640625 376.77117919921875 373.838287353515625 373.929718017578125 375.08831787109375 376.06500244140625 376.0130615234375 374.851898193359375 373.3065185546875 372.224029541015625 373.209716796875 374.534912109375 373.4464111328125 373.65765380859375 373.9969482421875 374.402374267578125 373.429779052734375 371.98883056640625 371.72528076171875 371.0672607421875 369.6378173828125 367.9783935546875 366.998199462890625 365.466583251953125 365.016387939453125 362.10772705078125 362.281036376953125 359.26800537109375 358.897308349609375 362.0906982421875 364.057342529296875 365.409912109375 366.9986572265625 368.25103759765625 370.344482421875 373.618804931640625 374.817291259765625 377.753387451171875 379.035858154296875 379.760284423828125 384.2958984375 385.0650634765625 384.15576171875 382.656158447265625 382.794189453125
378.45245361328125 379.38336181640625 379.50390625 382.70831298828125 383.5355224609375 384.730743408203125 386.658477783203125 388.584259033203125 392.099334716796875 395.03173828125 394.9986572265625 395.719482421875 396.86956787109375 398.50714111328125 397.225830078125 397.2886962890625 397.3480224609375 394.881744384765625 394.308135986328125 395.52703857421875 393.2081298828125 393.44757080078125 395.34979248046875 394.231048583984375 396.110382080078125 396.076934814453125 395.947906494140625 395.3565673828125 394.28863525390625 391.652130126953125 389.620574951171875 389.765777587890625 388.592681884765625 388.926605224609375 386.80828857421875 385.645355224609375 387.518157958984375 387.6251220703125 387.513458251953125 387.65301513671875 387.87554931640625 388.7901611328125 391.16522216796875 392.3448486328125 394.539093017578125 394.490203857421875 396.311126708984375 398.290863037109375 398.799774169921875 400.23956298828125 400.321136474609375 399.681610107421875 398.75390625 401.69549560546875 402.704681396484375 403.8077392578125 407.7484130859375 409.285888671875 412.4189453125 413.93817138671875 415.548919677734375 414.786773681640625 412.24713134765625 410.051483154296875 410.959381103515625 409.483062744140625 410.770477294921875 408.12353515625 408.260162353515625 408.433349609375 416.262359619140625 417.9981689453125 419.09259033203125 419.332122802734375 421.77490234375 426.4617919921875 428.760406494140625 430.15472412109375 432.441253662109375 431.503692626953125 428.262451171875 420.255279541015625 418.5810546875 416.460906982421875 414.72247314453125 413.292205810546875 408.502532958984375 405.70916748046875 407.206329345703125 407.048736572265625 405.082763671875 400.81927490234375 399.3043212890625 397.419647216796875 396.1981201171875 395.949798583984375 392.01177978515625 391.8702392578125 389.29443359375 386.355926513671875 385.375579833984375 386.685699462890625 385.93609619140625 385.53033447265625 384.771942138671875 382.9527587890625 379.150390625 377.29388427734375 377.973358154296875 379.11572265625 379.796173095703125 380.65875244140625 379.937530517578125 379.599090576171875 374.661865234375 374.70794677734375 375.04205322265625 375.913177490234375 376.141021728515625 376.109588623046875 374.131561279296875 373.561370849609375 375.732879638671875 375.41815185546875 374.74285888671875 374.857330322265625 375.125152587890625 375.26953125 373.256927490234375 372.32440185546875 371.946624755859375 371.2982177734375 369.343536376953125 368.0225830078125 367.238800048828125 367.2540283203125 362.98486328125 361.03753662109375 360.328948974609375 359.5599365234375 360.621124267578125 361.820220947265625 364.131927490234375 365.18756103515625 367.250946044921875 368.421722412109375 370.016815185546875 375.29443359375 377.133148193359375 377.734222412109375 380.3802490234375 381.648040771484375 385.586883544921875 386.64141845703125 386.431732177734375 386.154205322265625 385.73284912109375
380.774749755859375 381.00384521484375 381.68402099609375 385.194976806640625 385.847930908203125 386.80242919921875 387.4459228515625 390.188568115234375 393.39703369140625 395.49725341796875 395.806610107421875 396.848968505859375 398.233367919921875 398.918304443359375 397.81243896484375 397.64453125 397.433135986328125 396.929443359375 395.01641845703125 395.53118896484375 393.2081298828125 393.63623046875 395.177490234375 395.67205810546875 395.48724365234375 395.357666015625 394.471588134765625 393.684356689453125 393.5147705078125 388.1175537109375 388.259368896484375 388.337646484375 387.625946044921875 389.1424560546875 385.407257080078125 384.38800048828125 386.799163818359375 386.509674072265625 386.8741455078125 386.455078125 388.273193359375 388.76214599609375 390.926361083984375 395.264892578125 395.59637451171875 394.815460205078125 397.407623291015625 398.201873779296875 398.49676513671875 399.0865478515625 398.42889404296875 396.88604736328125 398.991790771484375 399.199554443359375 401.78533935546875 404.672760009765625 408.170196533203125 409.98760986328125 411.64239501953125 414.99908447265625 416.6395263671875 415.643890380859375 409.69500732421875 410.272552490234375 411.22021484375 409.5223388671875 411.011474609375 407.7337646484375 406.9683837890625 409.42633056640625 417.764984130859375 418.771148681640625 419.940185546875 422.290496826171875 423.64935302734375 426.126495361328125 429.65655517578125 430.097869873046875 431.333831787109375 430.970794677734375 423.36492919921875 418.18475341796875 416.780853271484375 415.59808349609375 413.120269775390625 407.26202392578125 408.5147705078125 406.552215576171875 405.51641845703125 406.282684326171875 402.97021484375 401.141632080078125 397.370361328125 396.481781005859375 394.84320068359375 393.5338134765625 391.555389404296875 390.408416748046875 390.089447021484375 388.005279541015625 386.36578369140625 384.053802490234375 385.446685791015625 385.1419677734375 385.00323486328125 383.710479736328125 377.673583984375 377.29388427734375 379.57958984375 380.195281982421875 379.777008056640625 382.1390380859375 381.925628662109375 380.4761962890625 377.779327392578125 375.785980224609375 374.9168701171875 376.41650390625 376.25555419921875 376.397857666015625 374.91119384765625 376.431365966796875 377.17095947265625 376.808197021484375 375.707916259765625 375.26416015625 375.224273681640625 375.521148681640625 373.26544189453125 372.84295654296875 372.385955810546875 371.45458984375 368.970611572265625 368.0147705078125 366.5322265625 365.1051025390625 363.59808349609375 360.428009033203125 359.605987548828125 360.3170166015625 361.645751953125 361.708770751953125 365.405029296875 365.7237548828125 367.308868408203125 369.704681396484375 371.446014404296875 374.32275390625 378.211761474609375 379.58917236328125 380.870208740234375 383.85260009765625 387.96209716796875 388.006103515625 388.819366455078125 390.59564208984375 388.695343017578125
382.991851806640625 382.95074462890625 384.434844970703125 388.100799560546875 389.4346923828125 389.90228271484375 389.676666259765625 391.630340576171875 394.706329345703125 395.389068603515625 397.55694580078125 398.80902099609375 399.196441650390625 400.302459716796875 399.792022705078125 397.964111328125 395.98883056640625 395.98883056640625 396.7584228515625 395.295166015625 394.94915771484375 395.34918212890625 396.266998291015625 395.47564697265625 394.323272705078125 393.83154296875 393.142181396484375 392.10858154296875 391.392120361328125 386.025054931640625 387.708282470703125 386.558868408203125 385.78009033203125 387.38104248046875 385.52899169921875 383.6724853515625 386.305908203125 386.357086181640625 386.546356201171875 385.663848876953125 388.191131591796875 390.49017333984375 392.697509765625 395.33624267578125 394.550018310546875 395.351409912109375 396.769683837890625 397.799224853515625 398.62835693359375 396.53887939453125 395.97222900390625 395.30975341796875 398.93988037109375 398.7274169921875 403.5380859375 404.85162353515625 406.9107666015625 410.690155029296875 412.61224365234375 414.5096435546875 416.400970458984375 414.3218994140625 409.87554931640625 409.57568359375 411.352630615234375 412.134368896484375 410.918212890625 409.48876953125 406.39324951171875 410.07330322265625 415.654937744140625 418.952392578125 419.58721923828125 420.842071533203125 424.8228759765625 424.666717529296875 426.7843017578125 429.550384521484375 429.748687744140625 427.884521484375 420.6865234375 417.882598876953125 414.95123291015625 413.362457275390625 412.48358154296875 407.44537353515625 407.26202392578125 407.032745361328125 404.660980224609375 404.14923095703125 401.588836669921875 400.7452392578125 400.079010009765625 395.4910888671875 394.239227294921875 392.8544921875 388.725006103515625 388.272674560546875 386.92767333984375 387.732177734375 384.873138427734375 383.893798828125 383.105316162109375 381.975494384765625 381.427001953125 381.892578125 378.532684326171875 377.582275390625 378.765655517578125 381.719635009765625 381.50225830078125 383.80792236328125 383.612762451171875 381.3975830078125 378.495758056640625 376.803436279296875 378.866790771484375 377.565765380859375 377.87762451171875 376.866546630859375 377.01995849609375 378.7381591796875 378.419036865234375 377.774078369140625 377.1368408203125 376.1470947265625 375.7703857421875 374.944580078125 374.186614990234375 373.587982177734375 372.008514404296875 371.39947509765625 368.011505126953125 366.8233642578125 366.2156982421875 362.87384033203125 362.13323974609375 360.68048095703125 360.0863037109375 361.2337646484375 362.296661376953125 362.55926513671875 364.6480712890625 367.814453125 369.249237060546875 370.28875732421875 372.9942626953125 375.370880126953125 376.154632568359375 380.845123291015625 382.69287109375 386.082855224609375 388.001708984375 390.210784912109375 393.93438720703125 393.98272705078125 393.83978271484375
384.950897216796875 385.5447998046875 387.18353271484375 390.39483642578125 391.082794189453125 391.780120849609375 392.306915283203125 392.679718017578125 395.09661865234375 396.2454833984375 397.35009765625 400.012481689453125 400.071807861328125 398.21270751953125 398.82916259765625 397.13555908203125 396.0009765625 395.98883056640625 397.89892578125 397.8310546875 398.477630615234375 398.446929931640625 395.13299560546875 394.764923095703125 392.839080810546875 391.592681884765625 390.503997802734375 389.69671630859375 389.19195556640625 387.425628662109375 386.025054931640625 384.11541748046875 384.35833740234375 386.2259521484375 382.291290283203125 382.291351318359375 386.15924072265625 385.2518310546875 385.351715087890625 386.17559814453125 386.953277587890625 391.70855712890625 393.10662841796875 393.54901123046875 393.54901123046875 395.159149169921875 396.19134521484375 396.541748046875 395.60693359375 395.02227783203125 393.994110107421875 395.715301513671875 396.568023681640625 398.965179443359375 401.0499267578125 404.9610595703125 406.83203125 408.976409912109375 413.61224365234375 415.274169921875 416.6376953125 413.2901611328125 409.6083984375 409.03021240234375 410.203094482421875 409.434356689453125 409.884185791015625 406.459503173828125 405.39984130859375 412.9205322265625 414.15411376953125 415.480316162109375 417.575042724609375 418.842041015625 423.51861572265625 423.639617919921875 426.35455322265625 429.76593017578125 429.013275146484375 427.951904296875 417.59796142578125 416.30670166015625 415.458221435546875 412.343292236328125 411.8194580078125 409.366455078125 406.556640625 406.4166259765625 404.332061767578125 401.547088623046875 398.317230224609375 397.826080322265625 397.984161376953125 395.986297607421875 391.7550048828125 390.5855712890625 388.385040283203125 386.81768798828125 386.76824951171875 386.972442626953125 384.365234375 382.84210205078125 383.49432373046875 381.82171630859375 381.03912353515625 378.774658203125 379.02117919921875 378.98162841796875 382.46527099609375 385.60101318359375 384.994293212890625 383.9954833984375 382.2830810546875 382.07562255859375 379.081207275390625 378.605560302734375 379.273468017578125 379.72564697265625 379.25787353515625 378.498992919921875 377.4920654296875 379.852081298828125 379.05078125 378.8294677734375 377.44586181640625 376.774322509765625 374.94696044921875 372.779266357421875 372.78826904296875 372.4713134765625 370.55877685546875 370.059783935546875 367.5760498046875 365.297821044921875 363.846435546875 362.45855712890625 362.565521240234375 361.391632080078125 360.51220703125 361.45819091796875 362.219146728515625 363.607330322265625 365.7559814453125 367.700836181640625 371.220733642578125 372.87860107421875 373.658782958984375 377.04876708984375 377.962310791015625 383.451171875 384.964019775390625 386.37939453125 390.657501220703125 393.529998779296875 395.383941650390625 396.934661865234375 397.1968994140625
386.35498046875 387.67108154296875 388.89154052734375 391.217803955078125 392.04962158203125 392.51141357421875 393.548736572265625 394.120208740234375 396.36383056640625 397.190521240234375 398.20782470703125 400.030120849609375 399.391937255859375 397.53546142578125 397.171112060546875 396.202117919921875 396.46331787109375 396.63812255859375 398.1773681640625 399.16741943359375 399.034912109375 398.463836669921875 397.254119873046875 392.322296142578125 391.656341552734375 390.40667724609375 387.829498291015625 388.3291015625 386.610504150390625 386.43035888671875 384.629638671875 383.11175537109375 383.139556884765625 385.021942138671875 381.879180908203125 382.702972412109375 384.612945556640625 384.004547119140625 385.26385498046875 384.01397705078125 387.489959716796875 389.71331787109375 392.671966552734375 393.644195556640625 394.798187255859375 395.4083251953125 395.830474853515625 396.552154541015625 394.97381591796875 393.709503173828125 392.675506591796875 394.273956298828125 394.44091796875 398.98052978515625 400.26483154296875 402.474517822265625 406.33251953125 408.6514892578125 411.29339599609375 414.747039794921875 415.163116455078125 410.9451904296875 409.374542236328125 409.03021240234375 409.843505859375 409.321136474609375 410.130401611328125 404.9215087890625 404.798553466796875 408.02813720703125 410.77813720703125 412.227508544921875 416.445037841796875 418.553924560546875 419.829559326171875 423.252288818359375 425.878509521484375 427.53515625 427.94970703125 426.228912353515625 420.075225830078125 414.78857421875 413.501068115234375 410.84674072265625 409.827911376953125 407.322509765625 405.756103515625 404.74139404296875 402.78314208984375 400.231231689453125 398.860595703125 396.258697509765625 394.821685791015625 394.621490478515625 392.324066162109375 387.703765869140625 387.67694091796875 385.8387451171875 385.5142822265625 385.492218017578125 382.84210205078125 383.01214599609375 383.528778076171875 380.984039306640625 380.012603759765625 379.491424560546875 380.58343505859375 381.589263916015625 383.04461669921875 388.241668701171875 383.9954833984375 384.343353271484375 383.786376953125 382.866729736328125 380.0986328125 379.466644287109375 380.734588623046875 380.36553955078125 380.780792236328125 380.737701416015625 379.93408203125 381.128631591796875 379.821990966796875 379.330047607421875 378.378997802734375 376.04400634765625 373.048248291015625 371.822418212890625 371.02105712890625 370.77850341796875 370.23236083984375 367.46917724609375 365.45611572265625 364.409088134765625 363.187408447265625 362.22015380859375 363.011566162109375 360.94525146484375 360.80126953125 362.045684814453125 362.935546875 363.676116943359375 367.07147216796875 368.99505615234375 372.770965576171875 374.3890380859375 375.7130126953125 378.889862060546875 380.757568359375 382.544921875 386.584564208984375 387.35870361328125 390.438232421875 394.53656005859375 396.5186767578125 397.87939453125 399.6444091796875
